2.1228 12.3245 0.688698 
2.1228 12.3245 0.967814 
2.1228 12.3245 0.467814 
2.1228 12.3245 0.217814 
2.1228 12.3245 0.567814 
2.14251 12.3174 0.788698 
2.14251 12.3174 1.0387 
2.14251 12.3174 0.388698 
2.14251 12.3174 0.138698 
2.14251 12.3174 0.688698 
2.14251 12.3174 0.967338 
2.14251 12.3174 0.467338 
2.14251 12.3174 0.217338 
2.14251 12.3174 0.567338 
2.17766 12.3177 0.788698 
2.17766 12.3177 1.0387 
2.17766 12.3177 0.388698 
2.17766 12.3177 0.138698 
2.17766 12.3177 0.688698 
2.17766 12.3177 0.970119 
2.17766 12.3177 0.470119 
2.17766 12.3177 0.220119 
2.17766 12.3177 0.570119 
2.12196 12.3497 0.788698 
2.12196 12.3497 1.0387 
2.12196 12.3497 0.388698 
2.12196 12.3497 0.138698 
2.12196 12.3497 0.688698 
2.12196 12.3497 0.971008 
2.12196 12.3497 0.471008 
2.12196 12.3497 0.221008 
2.12196 12.3497 0.571008 
2.13492 12.3259 0.788698 
2.13492 12.3259 1.0387 
2.13492 12.3259 0.388698 
2.13492 12.3259 0.138698 
2.13492 12.3259 0.688698 
2.13492 12.3259 0.962161 
2.13492 12.3259 0.462161 
2.13492 12.3259 0.212161 
2.13492 12.3259 0.562161 
2.13221 12.3632 0.788698 
2.13221 12.3632 1.0387 
2.13221 12.3632 0.388698 
2.13221 12.3632 0.138698 
2.13221 12.3632 0.688698 
2.13221 12.3632 0.957822 
2.13221 12.3632 0.457822 
2.13221 12.3632 0.207822 
2.13221 12.3632 0.557822 
2.15001 12.3666 0.788698 
2.15001 12.3666 1.0387 
2.15001 12.3666 0.388698 
2.15001 12.3666 0.138698 
2.15001 12.3666 0.688698 
2.15001 12.3666 0.956952 
2.15001 12.3666 0.456952 
2.15001 12.3666 0.206952 
2.15001 12.3666 0.556952 
2.13421 12.3927 0.788698 
2.13421 12.3927 1.0387 
2.13421 12.3927 0.388698 
2.13421 12.3927 0.138698 
2.13421 12.3927 0.688698 
2.13421 12.3927 0.96079 
2.13421 12.3927 0.46079 
2.13421 12.3927 0.21079 
2.13421 12.3927 0.56079 
2.12345 12.4125 0.788698 
2.12345 12.4125 1.0387 
2.12345 12.4125 0.388698 
2.12345 12.4125 0.138698 
2.12345 12.4125 0.688698 
2.12345 12.4125 0.958951 
2.12345 12.4125 0.458951 
2.12345 12.4125 0.208951 
2.12345 12.4125 0.558951 
2.11443 12.4469 0.788698 
2.11443 12.4469 1.0387 
2.11443 12.4469 0.388698 
2.11443 12.4469 0.138698 
2.11443 12.4469 0.688698 
2.11443 12.4469 0.955382 
2.11443 12.4469 0.455382 
2.11443 12.4469 0.205382 
2.11443 12.4469 0.555382 
2.12768 12.4479 0.788698 
2.12768 12.4479 1.0387 
2.12768 12.4479 0.388698 
2.12768 12.4479 0.138698 
2.12768 12.4479 0.688698 
2.12768 12.4479 0.95381 
2.12768 12.4479 0.45381 
2.12768 12.4479 0.20381 
2.12768 12.4479 0.55381 
2.0945 12.479 0.788698 
2.0945 12.479 1.0387 
2.0945 12.479 0.388698 
2.0945 12.479 0.138698 
2.0945 12.479 0.688698 
2.0945 12.479 0.958714 
2.0945 12.479 0.458714 
2.0945 12.479 0.208714 
2.0945 12.479 0.558714 
2.1069 12.4854 0.788698 
2.1069 12.4854 1.0387 
2.1069 12.4854 0.388698 
2.1069 12.4854 0.138698 
2.1069 12.4854 0.688698 
2.1069 12.4854 0.949106 
2.1069 12.4854 0.499106 
2.1069 12.4854 0.249106 
2.1069 12.4854 0.599106 
2.08503 12.5265 0.838698 
2.08503 12.5265 1.0887 
2.08503 12.5265 0.338698 
2.08503 12.5265 0.088698 
2.08503 12.5265 0.738698 
2.29279 12.1924 1.03584 
2.29279 12.1924 0.435841 
2.29279 12.1924 0.185841 
2.29279 12.1924 0.635841 
2.31678 12.1912 0.90648 
2.31678 12.1912 1.15648 
2.31678 12.1912 0.35648 
2.31678 12.1912 0.10648 
2.31678 12.1912 0.70648 
2.33744 12.192 0.962363 
2.33744 12.192 0.562363 
2.33744 12.192 0.312363 
2.33744 12.192 0.062363 
2.33744 12.192 0.762363 
2.29293 12.2218 0.978099 
2.29293 12.2218 0.478099 
2.29293 12.2218 0.228099 
2.29293 12.2218 0.578099 
2.3106 12.2088 0.848566 
2.3106 12.2088 1.09857 
2.3106 12.2088 0.398566 
2.3106 12.2088 0.148566 
2.3106 12.2088 0.698566 
2.14458 12.2475 0.930932 
2.14458 12.2475 0.530932 
2.14458 12.2475 0.280932 
2.14458 12.2475 0.030932 
2.14458 12.2475 0.780932 
2.29635 12.2257 1.0385 
2.29635 12.2257 0.438503 
2.29635 12.2257 0.188503 
2.29635 12.2257 0.638503 
2.30982 12.2336 0.895379 
2.30982 12.2336 1.14538 
2.30982 12.2336 0.345379 
2.30982 12.2336 0.095379 
2.30982 12.2336 0.745379 
2.32644 12.2398 1.00747 
2.32644 12.2398 0.507469 
2.32644 12.2398 0.257469 
2.32644 12.2398 0.007469 
2.32644 12.2398 0.807469 
2.2943 12.2619 1.04443 
2.2943 12.2619 0.444433 
2.2943 12.2619 0.194433 
2.2943 12.2619 0.644433 
2.30918 12.2594 0.901599 
2.30918 12.2594 1.1516 
2.30918 12.2594 0.351599 
2.30918 12.2594 0.101599 
2.30918 12.2594 0.701599 
2.38671 12.2677 0.966012 
2.38671 12.2677 0.566012 
2.38671 12.2677 0.316012 
2.38671 12.2677 0.066012 
2.38671 12.2677 0.766012 
2.1391 12.2856 0.991336 
2.1391 12.2856 0.491336 
2.1391 12.2856 0.241336 
2.1391 12.2856 0.591336 
2.19071 12.2917 0.832486 
2.19071 12.2917 1.08249 
2.19071 12.2917 0.382486 
2.19071 12.2917 0.132486 
2.19071 12.2917 0.682486 
2.20226 12.2855 0.937402 
2.20226 12.2855 0.537402 
2.20226 12.2855 0.287402 
2.20226 12.2855 0.037402 
2.20226 12.2855 0.787402 
2.29107 12.2949 1.03892 
2.29107 12.2949 0.438917 
2.29107 12.2949 0.188917 
2.29107 12.2949 0.638917 
2.12263 12.3107 0.838698 
2.12263 12.3107 1.0887 
2.12263 12.3107 0.338698 
2.12263 12.3107 0.088698 
2.12263 12.3107 0.738698 
2.30247 12.3065 1.02088 
2.30247 12.3065 0.520881 
2.30247 12.3065 0.270881 
2.30247 12.3065 0.020881 
2.30247 12.3065 0.820881 
2.37313 12.3144 1.07754 
2.37313 12.3144 0.477542 
2.37313 12.3144 0.227542 
2.37313 12.3144 0.627542 
2.44668 12.3073 0.878637 
2.44668 12.3073 1.12864 
2.44668 12.3073 0.428637 
2.44668 12.3073 0.178637 
2.44668 12.3073 0.678637 
2.11277 12.3437 0.838698 
2.11277 12.3437 1.0887 
2.11277 12.3437 0.338698 
2.11277 12.3437 0.088698 
2.11277 12.3437 0.738698 
2.30513 12.3348 1.02509 
2.30513 12.3348 0.525089 
2.30513 12.3348 0.275089 
2.30513 12.3348 0.025089 
2.30513 12.3348 0.825089 
2.3306 12.3308 1.07728 
2.3306 12.3308 0.477281 
2.3306 12.3308 0.227281 
2.3306 12.3308 0.627281 
2.32341 12.3535 0.879504 
2.32341 12.3535 1.1295 
2.32341 12.3535 0.429504 
2.32341 12.3535 0.179504 
2.32341 12.3535 0.679504 
2.35763 12.3646 0.925347 
2.35763 12.3646 1.17535 
2.35763 12.3646 0.375347 
2.35763 12.3646 0.125347 
2.35763 12.3646 0.725347 
2.11085 12.3843 0.888698 
2.11085 12.3843 0.538698 
2.11085 12.3843 0.288698 
2.11085 12.3843 0.038698 
2.11085 12.3843 0.823711 
2.11085 12.3843 1.07371 
2.11085 12.3843 0.373711 
2.11085 12.3843 0.123711 
2.11085 12.3843 0.673711 
2.1647 12.3826 0.888698 
2.1647 12.3826 0.538698 
2.1647 12.3826 0.288698 
2.1647 12.3826 0.038698 
2.1647 12.3826 0.824697 
2.1647 12.3826 1.0747 
2.1647 12.3826 0.374697 
2.1647 12.3826 0.124697 
2.1647 12.3826 0.674697 
2.31746 12.3996 0.979422 
2.31746 12.3996 0.579422 
2.31746 12.3996 0.329422 
2.31746 12.3996 0.079422 
2.31746 12.3996 0.779422 
2.11525 12.4157 1.00174 
2.11525 12.4157 0.501744 
2.11525 12.4157 0.251744 
2.11525 12.4157 0.001744 
2.11525 12.4157 0.801744 
2.32319 12.4138 1.07656 
2.32319 12.4138 0.476557 
2.32319 12.4138 0.226557 
2.32319 12.4138 0.626557 
2.33904 12.4042 0.879308 
2.33904 12.4042 1.12931 
2.33904 12.4042 0.429308 
2.33904 12.4042 0.179308 
2.33904 12.4042 0.679308 
2.36547 12.42 0.924494 
2.36547 12.42 1.17449 
2.36547 12.42 0.374494 
2.36547 12.42 0.124494 
2.36547 12.42 0.724494 
2.09605 12.4449 0.888698 
2.09605 12.4449 0.538698 
2.09605 12.4449 0.288698 
2.09605 12.4449 0.038698 
2.09605 12.4449 0.853893 
2.09605 12.4449 1.10389 
2.09605 12.4449 0.403893 
2.09605 12.4449 0.153893 
2.09605 12.4449 0.653893 
2.28894 12.4492 0.927258 
2.28894 12.4492 1.17726 
2.28894 12.4492 0.377258 
2.28894 12.4492 0.127258 
2.28894 12.4492 0.727258 
2.31658 12.4362 0.975571 
2.31658 12.4362 0.575571 
2.31658 12.4362 0.325571 
2.31658 12.4362 0.075571 
2.31658 12.4362 0.775571 
2.33763 12.4426 1.02668 
2.33763 12.4426 0.52668 
2.33763 12.4426 0.27668 
2.33763 12.4426 0.02668 
2.33763 12.4426 0.82668 
2.35683 12.444 1.07043 
2.35683 12.444 0.470431 
2.35683 12.444 0.220431 
2.35683 12.444 0.620431 
2.0955 12.4702 1.14255 
2.10668 12.4519 1.0339 
2.10668 12.4519 0.433903 
2.10668 12.4519 0.183903 
2.10668 12.4519 0.633903 
2.29295 12.4668 0.923585 
2.29295 12.4668 1.17358 
2.29295 12.4668 0.373585 
2.29295 12.4668 0.123585 
2.29295 12.4668 0.723585 
2.31062 12.4564 0.972585 
2.31062 12.4564 0.572585 
2.31062 12.4564 0.322585 
2.31062 12.4564 0.072585 
2.31062 12.4564 0.772585 
2.33288 12.4608 1.01615 
2.33288 12.4608 0.516147 
2.33288 12.4608 0.266147 
2.33288 12.4608 0.016147 
2.33288 12.4608 0.816147 
2.35166 12.4618 1.06623 
2.35166 12.4618 0.466229 
2.35166 12.4618 0.216229 
2.35166 12.4618 0.616229 
2.09116 12.4833 0.822457 
2.09116 12.4833 1.07246 
2.09116 12.4833 0.372457 
2.09116 12.4833 0.122457 
2.09116 12.4833 0.672457 
2.26806 12.4844 0.917782 
2.26806 12.4844 1.16778 
2.26806 12.4844 0.367782 
2.26806 12.4844 0.117782 
2.26806 12.4844 0.717782 
2.29021 12.4827 0.964091 
2.29021 12.4827 0.564091 
2.29021 12.4827 0.314091 
2.29021 12.4827 0.064091 
2.29021 12.4827 0.764091 
2.30906 12.483 1.01662 
2.30906 12.483 0.516623 
2.30906 12.483 0.266623 
2.30906 12.483 0.016623 
2.30906 12.483 0.816623 
2.33407 12.4882 1.07666 
2.33407 12.4882 0.476657 
2.33407 12.4882 0.226657 
2.33407 12.4882 0.626657 
2.26324 12.5095 0.865793 
2.26324 12.5095 1.11579 
2.26324 12.5095 0.415793 
2.26324 12.5095 0.165793 
2.26324 12.5095 0.665793 
2.28592 12.5069 0.918329 
2.28592 12.5069 1.16833 
2.28592 12.5069 0.368329 
2.28592 12.5069 0.118329 
2.28592 12.5069 0.718329 
2.31406 12.511 0.976087 
2.31406 12.511 0.576087 
2.31406 12.511 0.326087 
2.31406 12.511 0.076087 
2.31406 12.511 0.776087 
2.26814 12.5315 1.01017 
2.26814 12.5315 0.510165 
2.26814 12.5315 0.260165 
2.26814 12.5315 0.010165 
2.26814 12.5315 0.810165 
2.28428 12.5323 1.06525 
2.28428 12.5323 0.465253 
2.28428 12.5323 0.215253 
2.28428 12.5323 0.615253 
2.31663 12.5421 0.87638 
2.31663 12.5421 1.12638 
2.31663 12.5421 0.42638 
2.31663 12.5421 0.17638 
2.31663 12.5421 0.67638 
2.26759 12.5536 0.922732 
2.26759 12.5536 1.17273 
2.26759 12.5536 0.372732 
2.26759 12.5536 0.122732 
2.26759 12.5536 0.722732 
2.29645 12.5582 0.979125 
2.29645 12.5582 0.579125 
2.29645 12.5582 0.329125 
2.29645 12.5582 0.079125 
2.29645 12.5582 0.779125 
2.30032 12.5636 1.00763 
2.30032 12.5636 0.507632 
2.30032 12.5636 0.257632 
2.30032 12.5636 0.007632 
2.30032 12.5636 0.807632 
2.33019 12.5623 1.07733 
2.33019 12.5623 0.477329 
2.33019 12.5623 0.227329 
2.33019 12.5623 0.627329 
2.4058 12.5532 0.874214 
2.4058 12.5532 1.12421 
2.4058 12.5532 0.424214 
2.4058 12.5532 0.174214 
2.4058 12.5532 0.674214 
2.29188 12.5933 0.92267 
2.29188 12.5933 1.17267 
2.29188 12.5933 0.37267 
2.29188 12.5933 0.12267 
2.29188 12.5933 0.72267 
2.30184 12.5896 0.964066 
2.30184 12.5896 0.564066 
2.30184 12.5896 0.314066 
2.30184 12.5896 0.064066 
2.30184 12.5896 0.764066 
2.28222 12.6146 1.01275 
2.28222 12.6146 0.512748 
2.28222 12.6146 0.262748 
2.28222 12.6146 0.012748 
2.28222 12.6146 0.812748 
2.30926 12.6182 1.07206 
2.30926 12.6182 0.472058 
2.30926 12.6182 0.222058 
2.30926 12.6182 0.622058 
2.33412 12.6353 0.876721 
2.33412 12.6353 1.12672 
2.33412 12.6353 0.426721 
2.33412 12.6353 0.176721 
2.33412 12.6353 0.676721 
2.31819 12.1681 0.92189 
2.31819 12.1681 1.17189 
2.31819 12.1681 0.37189 
2.31819 12.1681 0.12189 
2.31819 12.1681 0.72189 
2.36893 12.1976 1.00438 
2.36893 12.1976 0.604379 
2.36893 12.1976 0.854379 
2.34394 12.2167 1.0876 
2.34394 12.2167 0.487604 
2.34394 12.2167 0.237604 
2.34394 12.2167 0.637604 
2.36473 12.2133 0.9048 
2.36473 12.2133 1.1548 
2.36473 12.2133 0.7548 
2.39864 12.2166 1.01123 
2.39864 12.2166 0.611233 
2.39864 12.2166 0.861233 
2.33533 12.2367 1.09148 
2.33533 12.2367 0.491481 
2.33533 12.2367 0.241481 
2.33533 12.2367 0.641481 
2.36517 12.2293 0.9044 
2.36517 12.2293 1.1544 
2.36517 12.2293 0.7544 
2.38832 12.2329 1.01801 
2.38832 12.2329 0.618014 
2.38832 12.2329 0.868014 
2.4098 12.2436 1.09816 
2.4098 12.2436 0.498162 
2.4098 12.2436 0.248162 
2.4098 12.2436 0.648162 
2.43099 12.2477 0.901353 
2.43099 12.2477 1.15135 
2.43099 12.2477 0.751353 
2.34062 12.2587 0.979057 
2.34062 12.2587 0.579057 
2.34062 12.2587 0.329057 
2.34062 12.2587 0.079057 
2.34062 12.2587 0.779057 
2.37425 12.2604 1.06365 
2.37425 12.2604 0.663653 
2.39126 12.2654 0.884888 
2.39126 12.2654 1.13489 
2.39126 12.2654 0.434888 
2.39126 12.2654 0.184888 
2.39126 12.2654 0.684888 
2.41032 12.268 0.951085 
2.41032 12.268 1.20109 
2.41032 12.268 0.801085 
2.47284 12.2666 1.04319 
2.47284 12.2666 0.543193 
2.47284 12.2666 0.293193 
2.47284 12.2666 0.043193 
2.47284 12.2666 0.843193 
2.33478 12.2878 1.09383 
2.33478 12.2878 0.493827 
2.33478 12.2878 0.243827 
2.33478 12.2878 0.643827 
2.3605 12.2881 0.912385 
2.3605 12.2881 1.16239 
2.3605 12.2881 0.762385 
2.39138 12.2861 0.98699 
2.39138 12.2861 0.58699 
2.39138 12.2861 0.33699 
2.39138 12.2861 0.08699 
2.39138 12.2861 0.78699 
2.41137 12.2915 1.05708 
2.41137 12.2915 0.657085 
2.42922 12.2752 0.916355 
2.42922 12.2752 1.16635 
2.42922 12.2752 0.766355 
2.46867 12.2848 1.00097 
2.46867 12.2848 0.600973 
2.46867 12.2848 0.850973 
2.12868 12.3037 1.10162 
2.12868 12.3037 0.701616 
2.32715 12.3133 0.949547 
2.32715 12.3133 1.19955 
2.32715 12.3133 0.399547 
2.32715 12.3133 0.149547 
2.32715 12.3133 0.749547 
2.38403 12.316 1.00131 
2.38403 12.316 0.601314 
2.38403 12.316 0.851314 
2.41346 12.3101 1.12168 
2.41346 12.3101 0.721678 
2.46237 12.3147 0.659894 
2.12187 12.3369 0.888698 
2.12187 12.3369 0.538698 
2.12187 12.3369 0.288698 
2.12187 12.3369 0.038698 
2.12187 12.3369 0.901782 
2.12187 12.3369 1.15178 
2.12187 12.3369 0.751782 
2.3354 12.3331 0.995896 
2.3354 12.3331 0.595896 
2.3354 12.3331 0.345896 
2.3354 12.3331 0.095896 
2.3354 12.3331 0.795896 
2.36627 12.3361 1.04684 
2.36627 12.3361 0.546838 
2.36627 12.3361 0.296838 
2.36627 12.3361 0.046838 
2.36627 12.3361 0.846838 
2.38477 12.3364 1.11516 
2.38477 12.3364 0.715162 
2.41675 12.3283 0.977349 
2.41675 12.3283 1.22735 
2.41675 12.3283 0.827349 
2.44889 12.3342 1.05898 
2.44889 12.3342 0.658984 
2.33901 12.3571 0.897757 
2.33901 12.3571 1.14776 
2.33901 12.3571 0.447757 
2.33901 12.3571 0.197757 
2.33901 12.3571 0.697757 
2.36143 12.3585 0.951621 
2.36143 12.3585 1.20162 
2.36143 12.3585 0.801621 
2.38691 12.3617 1.07099 
2.38691 12.3617 0.670985 
2.44861 12.3662 0.918143 
2.44861 12.3662 1.16814 
2.44861 12.3662 0.768143 
2.09856 12.3769 0.888698 
2.09856 12.3769 0.538698 
2.09856 12.3769 0.288698 
2.09856 12.3769 0.038698 
2.09856 12.3769 0.87338 
2.09856 12.3769 1.12338 
2.09856 12.3769 0.42338 
2.09856 12.3769 0.17338 
2.09856 12.3769 0.67338 
2.10195 12.3941 0.838698 
2.10195 12.3941 1.0887 
2.10195 12.3941 0.338698 
2.10195 12.3941 0.088698 
2.10195 12.3941 0.738698 
2.10195 12.3941 1.07204 
2.10195 12.3941 0.472037 
2.10195 12.3941 0.222037 
2.10195 12.3941 0.622037 
2.32326 12.398 0.890052 
2.32326 12.398 1.14005 
2.32326 12.398 0.440052 
2.32326 12.398 0.190052 
2.32326 12.398 0.690052 
2.33994 12.3857 0.951664 
2.33994 12.3857 1.20166 
2.33994 12.3857 0.801664 
2.3616 12.3851 1.05595 
2.3616 12.3851 0.655954 
2.3818 12.3882 0.910093 
2.3818 12.3882 1.16009 
2.3818 12.3882 0.760093 
2.40895 12.3972 1.02857 
2.40895 12.3972 0.628569 
2.40895 12.3972 0.878569 
2.44478 12.383 1.12014 
2.44478 12.383 0.720144 
2.10563 12.416 0.838698 
2.10563 12.416 1.0887 
2.10563 12.416 0.338698 
2.10563 12.416 0.088698 
2.10563 12.416 0.738698 
2.31829 12.4185 0.988316 
2.31829 12.4185 0.588316 
2.31829 12.4185 0.338316 
2.31829 12.4185 0.088316 
2.31829 12.4185 0.788316 
2.33548 12.4129 1.05316 
2.33548 12.4129 0.653155 
2.36233 12.4133 0.903462 
2.36233 12.4133 1.15346 
2.36233 12.4133 0.753462 
2.38299 12.4048 1.01161 
2.38299 12.4048 0.611613 
2.38299 12.4048 0.861613 
2.44109 12.4145 1.11728 
2.44109 12.4145 0.717276 
2.0989 12.4338 0.838698 
2.0989 12.4338 1.0887 
2.0989 12.4338 0.338698 
2.0989 12.4338 0.088698 
2.0989 12.4338 0.738698 
2.0989 12.4338 1.07509 
2.0989 12.4338 0.475088 
2.0989 12.4338 0.225088 
2.0989 12.4338 0.625088 
2.10846 12.4389 0.900808 
2.10846 12.4389 1.15081 
2.10846 12.4389 0.750808 
2.29261 12.4473 0.993848 
2.29261 12.4473 0.593848 
2.29261 12.4473 0.343848 
2.29261 12.4473 0.093848 
2.29261 12.4473 0.793848 
2.31287 12.4334 1.0383 
2.31287 12.4334 0.538303 
2.31287 12.4334 0.288303 
2.31287 12.4334 0.038303 
2.31287 12.4334 0.838303 
2.33874 12.4385 1.09699 
2.33874 12.4385 0.496993 
2.33874 12.4385 0.246993 
2.33874 12.4385 0.646993 
2.361 12.4373 0.900786 
2.361 12.4373 1.15079 
2.361 12.4373 0.750786 
2.38885 12.4375 1.01904 
2.38885 12.4375 0.619042 
2.38885 12.4375 0.869042 
2.40502 12.4357 1.12767 
2.40502 12.4357 0.727674 
2.43905 12.4399 0.968997 
2.43905 12.4399 1.219 
2.43905 12.4399 0.818997 
2.09466 12.4641 0.938698 
2.09466 12.4641 0.488698 
2.09466 12.4641 0.238698 
2.09466 12.4641 0.588698 
2.09466 12.4641 1.18175 
2.10102 12.4541 1.10563 
2.10102 12.4541 0.705631 
2.26929 12.4687 0.936988 
2.26929 12.4687 1.18699 
2.26929 12.4687 0.386988 
2.26929 12.4687 0.136988 
2.26929 12.4687 0.736988 
2.29893 12.4623 0.986557 
2.29893 12.4623 0.586557 
2.29893 12.4623 0.336557 
2.29893 12.4623 0.086557 
2.29893 12.4623 0.786557 
2.31469 12.4626 1.03871 
2.31469 12.4626 0.538707 
2.31469 12.4626 0.288707 
2.31469 12.4626 0.038707 
2.31469 12.4626 0.838707 
2.33892 12.4581 1.09283 
2.33892 12.4581 0.49283 
2.33892 12.4581 0.24283 
2.33892 12.4581 0.64283 
2.36259 12.4606 0.906419 
2.36259 12.4606 1.15642 
2.36259 12.4606 0.756419 
2.38791 12.4615 1.01907 
2.38791 12.4615 0.619071 
2.38791 12.4615 0.869071 
2.42074 12.4716 1.10667 
2.42074 12.4716 0.706666 
2.09956 12.4951 0.838698 
2.09956 12.4951 1.0887 
2.09956 12.4951 0.338698 
2.09956 12.4951 0.088698 
2.09956 12.4951 0.738698 
2.09956 12.4951 1.11291 
2.09956 12.4951 0.712911 
2.10869 12.4941 0.968739 
2.10869 12.4941 1.21874 
2.10869 12.4941 0.818739 
2.2738 12.4777 1.03433 
2.2738 12.4777 0.534334 
2.2738 12.4777 0.284334 
2.2738 12.4777 0.034334 
2.2738 12.4777 0.834334 
2.2975 12.4868 1.08627 
2.2975 12.4868 0.486267 
2.2975 12.4868 0.236267 
2.2975 12.4868 0.636267 
2.30837 12.4873 0.885661 
2.30837 12.4873 1.13566 
2.30837 12.4873 0.435661 
2.30837 12.4873 0.185661 
2.30837 12.4873 0.685661 
2.33884 12.4898 0.951151 
2.33884 12.4898 1.20115 
2.33884 12.4898 0.801151 
2.35979 12.4857 1.06061 
2.35979 12.4857 0.660614 
2.388 12.4914 0.916765 
2.388 12.4914 1.16677 
2.388 12.4914 0.766765 
2.41762 12.4883 1.01696 
2.41762 12.4883 0.616963 
2.41762 12.4883 0.866963 
2.08883 12.5009 0.988698 
2.08883 12.5009 0.438698 
2.08883 12.5009 0.188698 
2.08883 12.5009 0.638698 
2.2959 12.5102 0.89068 
2.2959 12.5102 1.14068 
2.2959 12.5102 0.44068 
2.2959 12.5102 0.19068 
2.2959 12.5102 0.69068 
2.31881 12.515 0.950322 
2.31881 12.515 1.20032 
2.31881 12.515 0.800322 
2.33576 12.5099 1.04778 
2.33576 12.5099 0.547784 
2.33576 12.5099 0.297784 
2.33576 12.5099 0.047784 
2.33576 12.5099 0.847784 
2.36387 12.5096 1.11802 
2.36387 12.5096 0.718016 
2.38222 12.5082 0.959631 
2.38222 12.5082 1.20963 
2.38222 12.5082 0.809631 
2.41743 12.5133 1.0668 
2.41743 12.5133 0.666799 
2.29037 12.53 0.889475 
2.29037 12.53 1.13948 
2.29037 12.53 0.439475 
2.29037 12.53 0.189475 
2.29037 12.53 0.689475 
2.31526 12.5377 0.94493 
2.31526 12.5377 1.19493 
2.31526 12.5377 0.39493 
2.31526 12.5377 0.14493 
2.31526 12.5377 0.74493 
2.33782 12.5382 1.0027 
2.33782 12.5382 0.602702 
2.33782 12.5382 0.852702 
2.36168 12.5331 1.12653 
2.36168 12.5331 0.726528 
2.41544 12.5398 0.958141 
2.41544 12.5398 1.20814 
2.41544 12.5398 0.808141 
2.29403 12.5732 1.03501 
2.29403 12.5732 0.53501 
2.29403 12.5732 0.28501 
2.29403 12.5732 0.03501 
2.29403 12.5732 0.83501 
2.31368 12.5625 1.09827 
2.31368 12.5625 0.498267 
2.31368 12.5625 0.248267 
2.31368 12.5625 0.648267 
2.33887 12.5583 0.918056 
2.33887 12.5583 1.16806 
2.33887 12.5583 0.768056 
2.35919 12.5599 1.02206 
2.35919 12.5599 0.622065 
2.35919 12.5599 0.872065 
2.31103 12.5876 1.04733 
2.31103 12.5876 0.547334 
2.31103 12.5876 0.297334 
2.31103 12.5876 0.047334 
2.31103 12.5876 0.847334 
2.33248 12.5816 1.10079 
2.33248 12.5816 0.700795 
2.35546 12.5858 0.970694 
2.35546 12.5858 1.22069 
2.35546 12.5858 0.820694 
2.28825 12.6136 0.998637 
2.28825 12.6136 0.598637 
2.28825 12.6136 0.348637 
2.28825 12.6136 0.098637 
2.28825 12.6136 0.798637 
2.3142 12.6138 1.03906 
2.3142 12.6138 0.539056 
2.3142 12.6138 0.289056 
2.3142 12.6138 0.039056 
2.3142 12.6138 0.839056 
2.33705 12.6039 1.11307 
2.33705 12.6039 0.713069 
2.35929 12.6055 0.972887 
2.35929 12.6055 1.22289 
2.35929 12.6055 0.822887 
2.39663 12.6206 1.07302 
2.39663 12.6206 0.673016 
2.3412 12.6292 0.894245 
2.3412 12.6292 1.14425 
2.3412 12.6292 0.444245 
2.3412 12.6292 0.194245 
2.3412 12.6292 0.694245 
2.43405 12.1894 1.01689 
2.43405 12.1894 1.26689 
2.43405 12.1894 0.866888 
2.16257 12.2236 1.09833 
2.16257 12.2236 0.698326 
2.39369 12.2181 0.945235 
2.39369 12.2181 1.19524 
2.39369 12.2181 0.795235 
2.41637 12.2105 1.05826 
2.41637 12.2105 0.658257 
2.41637 12.2105 0.908257 
2.43937 12.2099 1.14598 
2.43937 12.2099 0.745982 
2.45782 12.2181 0.996807 
2.45782 12.2181 1.24681 
2.45782 12.2181 0.846807 
2.15684 12.2316 1.08048 
2.15684 12.2316 0.680476 
2.36402 12.2459 0.949044 
2.36402 12.2459 1.19904 
2.36402 12.2459 0.799044 
2.38677 12.2353 1.05002 
2.38677 12.2353 0.650024 
2.38677 12.2353 0.900024 
2.41265 12.2409 1.13241 
2.41265 12.2409 0.732406 
2.43607 12.2395 0.990983 
2.43607 12.2395 1.24098 
2.43607 12.2395 0.840983 
2.45559 12.2366 1.10373 
2.45559 12.2366 0.703728 
2.15606 12.2619 1.15344 
2.36621 12.2674 1.004 
2.36621 12.2674 1.254 
2.36621 12.2674 0.854 
2.41601 12.2615 1.08257 
2.41601 12.2615 0.682574 
2.439 12.2645 0.947727 
2.439 12.2645 1.19773 
2.439 12.2645 0.797727 
2.45885 12.2615 1.06042 
2.45885 12.2615 0.660416 
2.45885 12.2615 0.910416 
2.14688 12.2912 1.13817 
2.14688 12.2912 0.738166 
2.34932 12.288 0.9762 
2.34932 12.288 1.2262 
2.34932 12.288 0.8262 
2.39528 12.2796 1.07719 
2.39528 12.2796 0.677189 
2.41351 12.2921 0.942 
2.41351 12.2921 1.192 
2.41351 12.2921 0.792 
2.43764 12.287 1.04995 
2.43764 12.287 0.64995 
2.43764 12.287 0.89995 
2.47027 12.2867 1.12123 
2.47027 12.2867 0.721233 
2.15007 12.3139 1.214 
2.39728 12.3165 1.11307 
2.39728 12.3165 0.713066 
2.41515 12.3155 0.952313 
2.41515 12.3155 1.20231 
2.41515 12.3155 0.802313 
2.4406 12.3106 1.06642 
2.4406 12.3106 0.666423 
2.4406 12.3106 0.916423 
2.46281 12.31 1.14634 
2.46281 12.31 0.746344 
2.13282 12.3294 1.1826 
2.39561 12.3439 1.10686 
2.39561 12.3439 0.706859 
2.41087 12.3324 0.949587 
2.41087 12.3324 1.19959 
2.41087 12.3324 0.799587 
2.43325 12.3296 1.05894 
2.43325 12.3296 0.658936 
2.43325 12.3296 0.908936 
2.13114 12.356 1.20793 
2.36906 12.364 1.08238 
2.36906 12.364 0.682379 
2.38729 12.3642 0.948806 
2.38729 12.3642 1.19881 
2.38729 12.3642 0.798806 
2.41349 12.3587 1.05095 
2.41349 12.3587 0.650945 
2.41349 12.3587 0.900945 
2.43518 12.3536 1.16808 
2.43518 12.3536 0.768079 
2.36695 12.3868 0.987452 
2.36695 12.3868 1.23745 
2.36695 12.3868 0.837452 
2.38468 12.3845 1.10014 
2.38468 12.3845 0.700139 
2.41137 12.3798 0.962266 
2.41137 12.3798 1.21227 
2.41137 12.3798 0.812266 
2.43777 12.3779 1.07671 
2.43777 12.3779 0.676715 
2.43777 12.3779 0.926715 
2.12629 12.4226 0.988698 
2.12629 12.4226 0.438698 
2.12629 12.4226 0.188698 
2.12629 12.4226 0.638698 
2.12629 12.4226 1.24376 
2.38899 12.4133 1.04569 
2.38899 12.4133 0.645692 
2.38899 12.4133 0.895692 
2.41065 12.4114 1.15533 
2.41065 12.4114 0.755334 
2.44273 12.4131 0.994474 
2.44273 12.4131 1.24447 
2.44273 12.4131 0.844474 
2.30447 12.4338 0.949498 
2.30447 12.4338 1.1995 
2.30447 12.4338 0.799498 
2.38472 12.4384 0.993973 
2.38472 12.4384 1.24397 
2.38472 12.4384 0.843973 
2.4063 12.4376 1.10292 
2.4063 12.4376 0.702918 
2.11773 12.4556 1.13962 
2.36254 12.4578 1.25225 
2.38804 12.4658 1.14886 
2.38804 12.4658 0.748859 
2.41294 12.4632 1.01372 
2.41294 12.4632 1.26372 
2.41294 12.4632 0.863725 
2.34102 12.4904 1.25811 
2.38791 12.4929 1.09492 
2.38791 12.4929 0.694923 
2.41014 12.4866 0.959309 
2.41014 12.4866 1.20931 
2.41014 12.4866 0.809309 
2.34454 12.5125 1.05763 
2.34454 12.5125 0.657628 
2.34454 12.5125 0.907628 
2.35939 12.5379 0.952556 
2.35939 12.5379 1.20256 
2.35939 12.5379 0.802556 
2.38857 12.534 1.05735 
2.38857 12.534 0.657354 
2.38857 12.534 0.907354 
2.33657 12.5641 1.10097 
2.33657 12.5641 0.700973 
2.35788 12.5612 1.26523 
2.37888 12.5629 1.16121 
2.37888 12.5629 0.761209 
2.31151 12.5954 0.987368 
2.31151 12.5954 1.23737 
2.31151 12.5954 0.837368 
2.33713 12.5924 1.10254 
2.33713 12.5924 0.702543 
2.37002 12.5881 0.954473 
2.37002 12.5881 1.20447 
2.37002 12.5881 0.804473 
2.3826 12.5899 1.06142 
2.3826 12.5899 0.661425 
2.3826 12.5899 0.911425 
2.30395 12.6085 1.13467 
2.30395 12.6085 0.734671 
2.34439 12.6075 1.00433 
2.34439 12.6075 1.25433 
2.34439 12.6075 0.854333 
2.35755 12.6083 1.10528 
2.35755 12.6083 0.705278 
2.38839 12.6179 0.960032 
2.38839 12.6179 1.21003 
2.38839 12.6179 0.810032 
2.3733 12.6268 1.04517 
2.3733 12.6268 0.645174 
2.3733 12.6268 0.895174 
2.39148 12.6286 0.698147 
2.41474 12.1813 0.981525 
2.41474 12.1813 1.23153 
2.41474 12.1813 0.831525 
2.464 12.1928 1.09452 
2.464 12.1928 0.694517 
2.464 12.1928 0.944517 
2.46286 12.2108 1.12411 
2.46286 12.2108 0.72411 
2.48375 12.2157 0.694592 
2.39018 12.2492 1.1752 
2.39018 12.2492 0.775203 
2.4591 12.2359 1.29828 
2.16074 12.2642 1.18664 
2.16074 12.2642 0.786641 
2.39387 12.2696 1.05484 
2.39387 12.2696 1.30484 
2.39387 12.2696 0.904839 
2.42034 12.2525 1.16559 
2.42034 12.2525 0.765588 
2.44382 12.262 0.977401 
2.44382 12.262 1.2274 
2.44382 12.262 0.827401 
2.46482 12.2611 1.08748 
2.46482 12.2611 0.687477 
2.46482 12.2611 0.937477 
2.15714 12.2796 1.19152 
2.15714 12.2796 0.791518 
2.43584 12.2925 1.0366 
2.43584 12.2925 1.2866 
2.43584 12.2925 0.886596 
2.36588 12.3132 1.04361 
2.36588 12.3132 1.29361 
2.36588 12.3132 0.89361 
2.43523 12.3157 1.10865 
2.43523 12.3157 0.708646 
2.43523 12.3157 0.958646 
2.3928 12.3437 1.13397 
2.3928 12.3437 0.733973 
2.41113 12.3394 1.29802 
2.43876 12.3358 1.19388 
2.43876 12.3358 0.793884 
2.43787 12.3576 1.00356 
2.43787 12.3576 1.25356 
2.43787 12.3576 0.853556 
2.41091 12.3931 1.04614 
2.41091 12.3931 1.29614 
2.41091 12.3931 0.89614 
2.4413 12.3885 1.15153 
2.4413 12.3885 0.751532 
2.37426 12.4151 0.993741 
2.37426 12.4151 1.24374 
2.37426 12.4151 0.843741 
2.40919 12.411 1.0875 
2.40919 12.411 0.687498 
2.40919 12.411 0.937498 
2.38658 12.4384 1.00876 
2.38658 12.4384 1.25876 
2.38658 12.4384 0.858761 
2.42079 12.4386 1.10506 
2.42079 12.4386 0.705062 
2.42079 12.4386 0.955062 
2.11573 12.4616 0.988698 
2.11573 12.4616 0.438698 
2.11573 12.4616 0.188698 
2.11573 12.4616 0.638698 
2.11573 12.4616 1.10912 
2.11573 12.4616 0.709122 
2.11573 12.4616 0.959122 
2.36744 12.4666 1.19596 
2.36744 12.4666 0.795964 
2.41037 12.4613 0.994032 
2.41037 12.4613 1.24403 
2.41037 12.4613 0.844032 
2.1174 12.4786 0.888698 
2.1174 12.4786 0.538698 
2.1174 12.4786 0.288698 
2.1174 12.4786 0.038698 
2.1174 12.4786 1.13261 
2.34657 12.4941 1.04493 
2.34657 12.4941 1.29493 
2.34657 12.4941 0.894928 
2.36094 12.4898 1.14368 
2.36094 12.4898 0.743681 
2.39337 12.4964 1.26175 
2.41138 12.4889 1.1476 
2.41138 12.4889 0.747596 
2.11802 12.5079 0.788698 
2.11802 12.5079 1.0387 
2.11802 12.5079 0.388698 
2.11802 12.5079 0.138698 
2.11802 12.5079 0.688698 
2.11802 12.5079 1.16054 
2.11802 12.5079 0.76054 
2.34151 12.5207 0.987102 
2.34151 12.5207 1.2371 
2.34151 12.5207 0.837102 
2.36178 12.5095 1.0994 
2.36178 12.5095 0.6994 
2.36178 12.5095 0.9494 
2.38727 12.5169 1.20485 
2.38727 12.5169 0.854847 
2.41367 12.5139 1.09523 
2.41367 12.5139 0.695232 
2.41367 12.5139 0.945232 
2.10315 12.5365 0.988698 
2.10315 12.5365 0.438698 
2.10315 12.5365 0.188698 
2.10315 12.5365 0.638698 
2.10315 12.5365 1.24393 
2.40335 12.5414 1.0631 
2.40335 12.5414 1.3131 
2.40335 12.5414 0.913097 
2.10523 12.5566 1.1567 
2.10523 12.5566 0.7567 
2.34153 12.5669 0.986436 
2.34153 12.5669 1.23644 
2.34153 12.5669 0.836436 
2.3662 12.5589 1.11112 
2.3662 12.5589 0.761118 
2.38511 12.5575 1.31235 
2.09598 12.587 1.18245 
2.09598 12.587 0.782449 
2.34217 12.5934 1.03017 
2.34217 12.5934 1.28017 
2.34217 12.5934 0.880175 
2.35742 12.587 1.15678 
2.35742 12.587 0.75678 
2.38657 12.5867 1.31053 
2.33394 12.6013 1.19236 
2.33394 12.6013 0.792356 
2.38628 12.6124 1.31172 
2.46529 12.21 1.23415 
2.46529 12.21 0.834145 
2.44529 12.2422 1.07001 
2.44529 12.2422 1.32001 
2.44529 12.2422 0.920011 
2.46841 12.2402 1.19076 
2.46841 12.2402 0.790764 
2.16519 12.2695 1.34262 
2.15845 12.2946 1.18896 
2.15845 12.2946 0.788962 
2.44822 12.2908 1.0389 
2.44822 12.2908 1.2889 
2.44822 12.2908 0.8889 
2.45797 12.2873 1.13212 
2.45797 12.2873 0.732119 
2.45797 12.2873 0.982119 
2.44777 12.3105 1.24593 
2.44777 12.3105 0.845931 
2.14738 12.3314 0.838698 
2.14738 12.3314 1.0887 
2.14738 12.3314 0.338698 
2.14738 12.3314 0.088698 
2.14738 12.3314 0.738698 
2.14738 12.3314 1.25441 
2.14738 12.3314 0.854411 
2.41826 12.3692 1.06302 
2.41826 12.3692 1.31302 
2.41826 12.3692 0.913022 
2.453 12.3538 1.04916 
2.453 12.3538 1.29916 
2.453 12.3538 0.899161 
2.4336 12.3886 1.35661 
2.13646 12.4045 0.988698 
2.13646 12.4045 0.438698 
2.13646 12.4045 0.188698 
2.13646 12.4045 0.638698 
2.13646 12.4045 1.15867 
2.13646 12.4045 0.758666 
2.13646 12.4045 1.00867 
2.39289 12.4245 1.25168 
2.39289 12.4245 0.851685 
2.40979 12.4081 1.11728 
2.40979 12.4081 1.36728 
2.40979 12.4081 0.967275 
2.43188 12.4119 1.20468 
2.43188 12.4119 0.804682 
2.1333 12.4355 0.788698 
2.1333 12.4355 1.0387 
2.1333 12.4355 0.388698 
2.1333 12.4355 0.138698 
2.1333 12.4355 0.688698 
2.1333 12.4355 1.34188 
2.3889 12.4281 1.2333 
2.3889 12.4281 0.833295 
2.41465 12.4302 1.09969 
2.41465 12.4302 1.34969 
2.41465 12.4302 0.949694 
2.12003 12.4575 1.17511 
2.12003 12.4575 0.775105 
2.12893 12.4644 0.788698 
2.12893 12.4644 1.0387 
2.12893 12.4644 0.388698 
2.12893 12.4644 0.138698 
2.12893 12.4644 0.688698 
2.12893 12.4644 1.20236 
2.12893 12.4644 0.802361 
2.39162 12.4623 1.35433 
2.37752 12.4887 1.18451 
2.37752 12.4887 0.784512 
2.41192 12.4882 1.35184 
2.40897 12.5069 1.23954 
2.40897 12.5069 0.839544 
2.41482 12.5384 1.30152 
2.10603 12.5607 1.18855 
2.10603 12.5607 0.788548 
2.38697 12.5597 1.04658 
2.38697 12.5597 1.29658 
2.38697 12.5597 0.896578 
2.37305 12.6081 1.08709 
2.37305 12.6081 1.33709 
2.37305 12.6081 0.937094 
2.17291 12.2889 1.1339 
2.17291 12.2889 1.3839 
2.17291 12.2889 0.983899 
2.17742 12.284 1.24145 
2.17742 12.284 0.841454 
2.18658 12.3166 1.11275 
2.18658 12.3166 1.36275 
2.18658 12.3166 0.962748 
2.17009 12.3447 0.888698 
2.17009 12.3447 0.538698 
2.17009 12.3447 0.288698 
2.17009 12.3447 0.038698 
2.17009 12.3447 1.11125 
2.17009 12.3447 1.36125 
2.17009 12.3447 0.961253 
2.4495 12.3416 1.35372 
2.14661 12.3634 1.22189 
2.14661 12.3634 0.821893 
2.16274 12.3612 0.788698 
2.16274 12.3612 1.0387 
2.16274 12.3612 0.388698 
2.16274 12.3612 0.138698 
2.16274 12.3612 0.688698 
2.16274 12.3612 1.26795 
2.16274 12.3612 0.867948 
2.43951 12.3607 1.35605 
2.14453 12.3945 0.938698 
2.14453 12.3945 0.488698 
2.14453 12.3945 0.238698 
2.14453 12.3945 0.588698 
2.14453 12.3945 1.15823 
2.14453 12.3945 1.40823 
2.14453 12.3945 1.00823 
2.15212 12.3989 1.24608 
2.15212 12.3989 0.846085 
2.42771 12.3949 1.08847 
2.42771 12.3949 1.33847 
2.42771 12.3949 0.938475 
2.13702 12.4219 0.888698 
2.13702 12.4219 0.538698 
2.13702 12.4219 0.288698 
2.13702 12.4219 0.038698 
2.13702 12.4219 1.11087 
2.13702 12.4219 1.36087 
2.13702 12.4219 0.960867 
2.15569 12.4092 0.888698 
2.15569 12.4092 0.538698 
2.15569 12.4092 0.288698 
2.15569 12.4092 0.038698 
2.15569 12.4092 1.0989 
2.15569 12.4092 1.3489 
2.15569 12.4092 0.9489 
2.13685 12.4414 1.17006 
2.13685 12.4414 1.42006 
2.13685 12.4414 1.02006 
2.42068 12.4346 1.23894 
2.42068 12.4346 0.838941 
2.43422 12.4299 1.35525 
2.11685 12.5043 1.40724 
2.11419 12.5275 0.938698 
2.11419 12.5275 0.488698 
2.11419 12.5275 0.238698 
2.11419 12.5275 0.588698 
2.11419 12.5275 1.19756 
2.41348 12.537 1.41106 
2.10501 12.5851 1.29949 
2.10501 12.5851 0.899491 
2.36196 12.5976 1.1789 
2.36196 12.5976 1.4289 
2.36196 12.5976 1.0289 
2.39727 12.6104 1.23911 
2.39727 12.6104 0.839108 
2.18869 12.2667 1.15048 
2.18869 12.2667 1.40048 
2.18869 12.2667 1.00048 
2.18413 12.3136 1.19962 
2.18413 12.3136 1.44962 
2.18413 12.3136 1.04962 
2.18651 12.3333 0.938698 
2.18651 12.3333 0.488698 
2.18651 12.3333 0.238698 
2.18651 12.3333 0.588698 
2.18651 12.3333 1.20307 
2.18651 12.3333 1.45307 
2.18651 12.3333 1.05307 
2.14856 12.3732 1.31995 
2.14856 12.3732 0.919945 
2.16467 12.3667 1.15054 
2.16467 12.3667 1.40054 
2.16467 12.3667 1.00054 
2.15572 12.3891 0.838698 
2.15572 12.3891 1.0887 
2.15572 12.3891 0.338698 
2.15572 12.3891 0.088698 
2.15572 12.3891 0.738698 
2.15572 12.3891 1.34756 
2.15767 12.4011 1.20552 
2.15767 12.4011 1.45552 
2.15767 12.4011 1.05552 
2.21798 12.4129 0.938698 
2.21798 12.4129 0.488698 
2.21798 12.4129 0.238698 
2.21798 12.4129 0.588698 
2.21798 12.4129 1.2 
2.21798 12.4129 1.45 
2.21798 12.4129 1.05 
2.15153 12.4269 0.838698 
2.15153 12.4269 1.0887 
2.15153 12.4269 0.338698 
2.15153 12.4269 0.088698 
2.15153 12.4269 0.738698 
2.15153 12.4269 1.34944 
2.15153 12.4269 0.949444 
2.12144 12.495 0.788698 
2.12144 12.495 1.0387 
2.12144 12.495 0.388698 
2.12144 12.495 0.138698 
2.12144 12.495 0.688698 
2.12144 12.495 1.28995 
2.12947 12.4846 0.838698 
2.12947 12.4846 1.0887 
2.12947 12.4846 0.338698 
2.12947 12.4846 0.088698 
2.12947 12.4846 0.738698 
2.12947 12.4846 1.34852 
2.12136 12.5125 1.25135 
2.12136 12.5125 0.851352 
2.12136 12.5125 1.10135 
2.11231 12.5263 1.36716 
2.11231 12.5263 0.96716 
2.11141 12.5503 1.17684 
2.11141 12.5503 1.42684 
2.11141 12.5503 1.02684 
2.11091 12.5794 1.2752 
2.11091 12.5794 0.875196 
2.38786 12.5939 1.15275 
2.38786 12.5939 1.45275 
2.38786 12.5939 1.05275 
2.13089 12.611 1.27863 
2.13089 12.611 0.878629 
2.31866 12.6021 1.17932 
2.31866 12.6021 1.42932 
2.31866 12.6021 1.02932 
2.38639 12.605 1.26491 
2.38639 12.605 0.914915 
2.2235 12.1721 1.19654 
2.2235 12.1721 1.44654 
2.2235 12.1721 1.04654 
2.21087 12.1921 1.29185 
2.21087 12.1921 0.891852 
2.21087 12.1921 1.14185 
2.23708 12.1757 1.41244 
2.23708 12.1757 1.06244 
2.19295 12.2181 1.29545 
2.19295 12.2181 0.895447 
2.19295 12.2181 1.14545 
2.21955 12.2044 1.39982 
2.21955 12.2044 0.999819 
2.19127 12.2428 1.24249 
2.19127 12.2428 1.49249 
2.19127 12.2428 1.09249 
2.20923 12.227 1.33562 
2.20923 12.227 0.935622 
2.17833 12.2994 1.18803 
2.17833 12.2994 1.43803 
2.17833 12.2994 1.03803 
2.20753 12.2967 1.31743 
2.20753 12.2967 0.967426 
2.16902 12.3172 1.19909 
2.16902 12.3172 1.44909 
2.16902 12.3172 1.04909 
2.1835 12.308 0.888698 
2.1835 12.308 0.538698 
2.1835 12.308 0.288698 
2.1835 12.308 0.038698 
2.16369 12.3423 1.20014 
2.16369 12.3423 1.45014 
2.16369 12.3423 1.10014 
2.21433 12.3391 0.888698 
2.21433 12.3391 0.538698 
2.21433 12.3391 0.288698 
2.21433 12.3391 0.038698 
2.21433 12.3391 1.20577 
2.21433 12.3391 1.45577 
2.21433 12.3391 1.10577 
2.23357 12.3494 0.938698 
2.23357 12.3494 0.488698 
2.23357 12.3494 0.238698 
2.23357 12.3494 0.588698 
2.23357 12.3494 1.24694 
2.23357 12.3494 1.49694 
2.14665 12.3655 1.35343 
2.18448 12.3582 0.788698 
2.18448 12.3582 1.0387 
2.18448 12.3582 0.388698 
2.18448 12.3582 0.138698 
2.18448 12.3582 0.688698 
2.18448 12.3582 1.33561 
2.21031 12.3646 0.788698 
2.21031 12.3646 1.0387 
2.21031 12.3646 0.388698 
2.21031 12.3646 0.138698 
2.21031 12.3646 0.688698 
2.21031 12.3646 1.35373 
2.21031 12.3646 1.00373 
2.23086 12.3725 0.838698 
2.23086 12.3725 1.0887 
2.23086 12.3725 0.338698 
2.23086 12.3725 0.088698 
2.23086 12.3725 0.738698 
2.23086 12.3725 1.40937 
2.23086 12.3725 1.05937 
2.14638 12.3863 1.29087 
2.14638 12.3863 1.14087 
2.18252 12.385 0.938698 
2.18252 12.385 0.488698 
2.18252 12.385 0.238698 
2.18252 12.385 0.588698 
2.18252 12.385 1.23073 
2.18252 12.385 1.48073 
2.21012 12.3818 0.938698 
2.21012 12.3818 0.488698 
2.21012 12.3818 0.238698 
2.21012 12.3818 0.588698 
2.21012 12.3818 1.26095 
2.21012 12.3818 0.910951 
2.21012 12.3818 1.16095 
2.25289 12.3834 0.988698 
2.25289 12.3834 0.438698 
2.25289 12.3834 0.188698 
2.25289 12.3834 0.638698 
2.25289 12.3834 1.30477 
2.25289 12.3834 0.954775 
2.14287 12.4102 1.19463 
2.14287 12.4102 1.44463 
2.14287 12.4102 1.04463 
2.19486 12.4206 0.888698 
2.19486 12.4206 0.538698 
2.19486 12.4206 0.288698 
2.19486 12.4206 0.038698 
2.19486 12.4206 1.19643 
2.19486 12.4206 1.44643 
2.1514 12.4309 1.4973 
2.13432 12.4613 1.24193 
2.12166 12.4839 1.49706 
2.12166 12.4839 1.09706 
2.11814 12.5125 1.34172 
2.11427 12.536 1.21002 
2.11427 12.536 1.46002 
2.11427 12.536 1.11002 
2.1338 12.5286 0.938698 
2.1338 12.5286 0.488698 
2.1338 12.5286 0.238698 
2.1338 12.5286 0.588698 
2.1338 12.5286 1.26716 
2.1338 12.5286 0.917165 
2.1338 12.5286 1.16716 
2.11724 12.5934 1.38401 
2.11724 12.5934 0.984014 
2.32133 12.6033 1.2402 
2.32133 12.6033 1.4902 
2.32133 12.6033 1.0902 
2.33682 12.6152 1.37008 
2.33682 12.6152 1.02008 
2.35684 12.608 1.3627 
2.39148 12.6051 1.29847 
2.39148 12.6051 0.898474 
2.39148 12.6051 1.14847 
2.22287 12.1705 1.46667 
2.22287 12.1705 1.16667 
2.23778 12.1664 1.39929 
2.23778 12.1664 1.04929 
2.19886 12.2193 1.28327 
2.19886 12.2193 0.933269 
2.19886 12.2193 1.18327 
2.20741 12.2129 1.44774 
2.20741 12.2129 1.09774 
2.21157 12.2387 1.3516 
2.21157 12.2387 1.0516 
2.17007 12.259 1.27301 
2.17007 12.259 0.923013 
2.17007 12.259 1.17301 
2.21182 12.2686 1.44311 
2.21182 12.2686 1.09311 
2.19367 12.2874 1.33283 
2.20859 12.295 1.24167 
2.20859 12.295 1.49167 
2.20859 12.295 1.14167 
2.16904 12.3129 1.38137 
2.16904 12.3129 1.03137 
2.21198 12.3023 0.788698 
2.21198 12.3023 0.438698 
2.21198 12.3023 0.188698 
2.21198 12.3023 0.638698 
2.21198 12.3023 1.35105 
2.21198 12.3023 1.05105 
2.23487 12.3096 0.838698 
2.23487 12.3096 1.0887 
2.23487 12.3096 0.338698 
2.23487 12.3096 0.088698 
2.23487 12.3096 0.738698 
2.23487 12.3096 1.4257 
2.23487 12.3096 1.0757 
2.16179 12.3368 0.888698 
2.16179 12.3368 0.538698 
2.16179 12.3368 0.288698 
2.16179 12.3368 0.038698 
2.18841 12.3451 0.788698 
2.18841 12.3451 1.0387 
2.18841 12.3451 0.388698 
2.18841 12.3451 0.138698 
2.18841 12.3451 0.688698 
2.18841 12.3451 1.38053 
2.14781 12.3672 1.23749 
2.14781 12.3672 1.48749 
2.25063 12.3514 0.888698 
2.25063 12.3514 0.538698 
2.25063 12.3514 0.288698 
2.25063 12.3514 0.038698 
2.25063 12.3514 1.22951 
2.25063 12.3514 1.47951 
2.22102 12.3784 0.888698 
2.22102 12.3784 0.538698 
2.22102 12.3784 0.288698 
2.22102 12.3784 0.038698 
2.22102 12.3784 1.23762 
2.22102 12.3784 1.48762 
2.14343 12.4131 0.538698 
2.14343 12.4131 0.288698 
2.14343 12.4131 0.038698 
2.15647 12.4134 1.45134 
2.23588 12.4076 0.988698 
2.23588 12.4076 0.438698 
2.23588 12.4076 0.188698 
2.23588 12.4076 0.638698 
2.23588 12.4076 1.34644 
2.23588 12.4076 1.19644 
2.14279 12.4341 1.43308 
2.14279 12.4341 1.08308 
2.15833 12.4376 0.888698 
2.15833 12.4376 0.538698 
2.15833 12.4376 0.288698 
2.15833 12.4376 0.038698 
2.15833 12.4376 1.24726 
2.15833 12.4376 1.14726 
2.21201 12.4338 0.938698 
2.21201 12.4338 0.488698 
2.21201 12.4338 0.238698 
2.21201 12.4338 0.588698 
2.21201 12.4338 1.29574 
2.21201 12.4338 1.14574 
2.16652 12.4604 0.888698 
2.16652 12.4604 0.538698 
2.16652 12.4604 0.288698 
2.16652 12.4604 0.038698 
2.16652 12.4604 1.2517 
2.16652 12.4604 0.951696 
2.16652 12.4604 1.2017 
2.21991 12.4582 0.988698 
2.21991 12.4582 0.438698 
2.21991 12.4582 0.188698 
2.21991 12.4582 0.638698 
2.21991 12.4582 1.36398 
2.21991 12.4582 1.06398 
2.19854 12.4753 0.838698 
2.19854 12.4753 1.0887 
2.19854 12.4753 0.338698 
2.19854 12.4753 0.088698 
2.19854 12.4753 0.738698 
2.19854 12.4753 1.46164 
2.19854 12.4753 1.16164 
2.23743 12.4774 0.938698 
2.23743 12.4774 0.488698 
2.23743 12.4774 0.238698 
2.23743 12.4774 0.588698 
2.23743 12.4774 1.30263 
2.23743 12.4774 1.00263 
2.12017 12.5159 1.22916 
2.12017 12.5159 1.47916 
2.12017 12.5159 1.12916 
2.13544 12.5176 0.938698 
2.13544 12.5176 0.488698 
2.13544 12.5176 0.238698 
2.13544 12.5176 0.588698 
2.13544 12.5176 1.31461 
2.13544 12.5176 1.01461 
2.12173 12.5356 0.788698 
2.12173 12.5356 1.0387 
2.12173 12.5356 0.388698 
2.12173 12.5356 0.138698 
2.12173 12.5356 0.688698 
2.12173 12.5356 1.37912 
2.12757 12.5329 1.24321 
2.12757 12.5329 1.49321 
2.15295 12.5548 1.34623 
2.15295 12.5548 0.99623 
2.38717 12.5819 1.23525 
2.38717 12.5819 1.48525 
2.38717 12.5819 1.13525 
2.24812 12.6076 1.40275 
2.24812 12.6076 1.10275 
2.27871 12.6146 1.37425 
2.27871 12.6146 1.07425 
2.34952 12.6142 1.28313 
2.34952 12.6142 0.933126 
2.34952 12.6142 1.18313 
2.39044 12.6144 1.46222 
2.36885 12.6263 1.46527 
2.36885 12.6263 1.16527 
2.22276 12.1669 1.43442 
2.22276 12.1669 1.13442 
2.23695 12.1623 1.38204 
2.23695 12.1623 1.08204 
2.21681 12.1867 1.33301 
2.21681 12.1867 1.03301 
2.22926 12.2167 1.2918 
2.22926 12.2167 0.991804 
2.22926 12.2167 1.2418 
2.22314 12.2389 1.49366 
2.22314 12.2389 1.19366 
2.23868 12.268 1.44289 
2.23868 12.268 1.14289 
2.25605 12.2734 1.40848 
2.25605 12.2734 1.15848 
2.23966 12.2937 1.40643 
2.23966 12.2937 1.15643 
2.18084 12.3147 1.37645 
2.2189 12.3094 0.938698 
2.2189 12.3094 1.36031 
2.2189 12.3094 1.11031 
2.23853 12.3096 1.35157 
2.23853 12.3096 1.10157 
2.16454 12.3455 1.33094 
2.16454 12.3455 1.18094 
2.19154 12.3345 1.44316 
2.20714 12.3311 0.788698 
2.20714 12.3311 1.0387 
2.20714 12.3311 0.388698 
2.20714 12.3311 0.138698 
2.20714 12.3311 0.688698 
2.20714 12.3311 1.46747 
2.20714 12.3311 1.21747 
2.22628 12.3397 0.938698 
2.22628 12.3397 0.488698 
2.22628 12.3397 0.238698 
2.22628 12.3397 0.588698 
2.22628 12.3397 1.36203 
2.22628 12.3397 1.11203 
2.15896 12.383 1.34016 
2.15896 12.383 1.24016 
2.18403 12.3882 1.4928 
2.16287 12.4119 1.34136 
2.16287 12.4119 1.19136 
2.18787 12.4125 0.938698 
2.18787 12.4125 0.488698 
2.18787 12.4125 0.238698 
2.18787 12.4125 0.588698 
2.18787 12.4125 1.3583 
2.18787 12.4125 1.1083 
2.14617 12.4399 0.838698 
2.14617 12.4399 0.388698 
2.14617 12.4399 0.138698 
2.14617 12.4399 0.688698 
2.16048 12.4388 1.42803 
2.16048 12.4388 1.12803 
2.18408 12.4324 0.888698 
2.18408 12.4324 0.538698 
2.18408 12.4324 0.288698 
2.18408 12.4324 0.038698 
2.18408 12.4324 1.30156 
2.18408 12.4324 1.05156 
2.14822 12.4639 0.788698 
2.14822 12.4639 1.0387 
2.14822 12.4639 0.388698 
2.14822 12.4639 0.138698 
2.14822 12.4639 0.688698 
2.14822 12.4639 1.43247 
2.16441 12.4629 1.49326 
2.18446 12.4641 0.988698 
2.18446 12.4641 0.438698 
2.18446 12.4641 0.188698 
2.18446 12.4641 0.638698 
2.18446 12.4641 1.38985 
2.18446 12.4641 1.23985 
2.20308 12.4747 1.47347 
2.20308 12.4747 1.17347 
2.14886 12.4887 0.938698 
2.14886 12.4887 0.488698 
2.14886 12.4887 0.238698 
2.14886 12.4887 0.588698 
2.14886 12.4887 1.33874 
2.14886 12.4887 1.18874 
2.16845 12.4918 0.938698 
2.16845 12.4918 0.488698 
2.16845 12.4918 0.238698 
2.16845 12.4918 0.588698 
2.16845 12.4918 1.34593 
2.16845 12.4918 1.19593 
2.18436 12.483 0.938698 
2.18436 12.483 0.488698 
2.18436 12.483 0.238698 
2.18436 12.483 0.588698 
2.18436 12.483 1.34978 
2.18436 12.483 1.04978 
2.21852 12.481 0.788698 
2.21852 12.481 1.0387 
2.21852 12.481 0.388698 
2.21852 12.481 0.138698 
2.21852 12.481 0.688698 
2.21852 12.481 1.42866 
2.21852 12.481 1.12866 
2.13899 12.5171 1.38589 
2.13899 12.5171 1.23589 
2.16128 12.5082 0.988698 
2.16128 12.5082 0.438698 
2.16128 12.5082 0.188698 
2.16128 12.5082 0.638698 
2.16128 12.5082 1.39078 
2.16128 12.5082 1.24078 
2.17892 12.5178 0.988698 
2.17892 12.5178 0.438698 
2.17892 12.5178 0.188698 
2.17892 12.5178 0.638698 
2.17892 12.5178 1.41817 
2.17892 12.5178 1.16817 
2.15287 12.5353 0.888698 
2.15287 12.5353 0.538698 
2.15287 12.5353 0.288698 
2.15287 12.5353 0.038698 
2.15287 12.5353 1.28557 
2.15287 12.5353 1.13557 
2.19954 12.5281 0.888698 
2.19954 12.5281 0.538698 
2.19954 12.5281 0.288698 
2.19954 12.5281 0.038698 
2.19954 12.5281 1.31621 
2.19954 12.5281 1.06621 
2.22241 12.5946 1.30048 
2.22241 12.5946 1.05048 
2.24984 12.59 1.31138 
2.24984 12.59 1.06138 
2.26598 12.5928 1.30789 
2.26598 12.5928 1.05789 
2.27676 12.5945 1.3003 
2.27676 12.5945 1.0503 
2.3374 12.5881 1.31191 
2.3374 12.5881 1.06191 
2.29265 12.6108 1.29886 
2.29265 12.6108 1.24886 
2.31761 12.6085 1.01528 
2.31761 12.6085 1.26528 
2.26373 12.1982 1.37102 
2.26373 12.1982 1.12102 
2.31275 12.1899 1.37997 
2.31275 12.1899 1.12997 
2.32843 12.1918 1.41693 
2.32843 12.1918 1.21693 
2.24926 12.22 1.42825 
2.24926 12.22 1.17825 
2.26489 12.2127 1.43451 
2.26489 12.2127 1.18451 
2.28343 12.2147 1.44241 
2.28343 12.2147 1.19241 
2.30869 12.2095 1.45706 
2.26813 12.2485 1.38441 
2.26813 12.2485 1.13441 
2.46719 12.229 1.39189 
2.46719 12.229 1.14189 
2.29912 12.2527 1.40753 
2.29912 12.2527 1.20753 
2.27279 12.2956 1.44675 
2.27279 12.2956 1.19675 
2.29539 12.2801 1.44646 
2.29539 12.2801 1.19646 
2.26648 12.3214 1.4399 
2.26648 12.3214 1.1899 
2.3038 12.3074 1.4726 
2.22314 12.3373 1.382 
2.22314 12.3373 1.232 
2.25389 12.3359 0.938698 
2.25389 12.3359 0.488698 
2.25389 12.3359 0.238698 
2.25389 12.3359 0.588698 
2.25389 12.3359 1.38913 
2.25389 12.3359 1.23913 
2.28964 12.3438 1.07016 
2.28964 12.3438 1.32016 
2.21716 12.3669 1.02657 
2.21716 12.3669 1.27657 
2.24393 12.3541 1.10724 
2.25894 12.3587 1.36377 
2.25894 12.3587 1.16377 
2.20119 12.397 0.838698 
2.20119 12.397 1.0887 
2.20119 12.397 0.338698 
2.20119 12.397 0.088698 
2.20119 12.397 0.738698 
2.20119 12.397 1.0214 
2.20119 12.397 1.2714 
2.23917 12.3868 0.988698 
2.23917 12.3868 0.438698 
2.23917 12.3868 0.188698 
2.23917 12.3868 0.638698 
2.23917 12.3868 1.43755 
2.23917 12.3868 1.28755 
2.21129 12.4072 1.02848 
2.21129 12.4072 1.27848 
2.19609 12.4415 0.988698 
2.19609 12.4415 0.438698 
2.19609 12.4415 0.188698 
2.19609 12.4415 0.638698 
2.19609 12.4415 1.43149 
2.19609 12.4415 1.28149 
2.20837 12.4345 1.13148 
2.24127 12.4465 0.838698 
2.24127 12.4465 1.0887 
2.24127 12.4465 0.338698 
2.24127 12.4465 0.088698 
2.24127 12.4465 0.738698 
2.24127 12.4465 1.1156 
2.2081 12.4612 0.788698 
2.2081 12.4612 1.0387 
2.2081 12.4612 0.388698 
2.2081 12.4612 0.138698 
2.2081 12.4612 0.688698 
2.2081 12.4612 1.4849 
2.2316 12.4534 0.788698 
2.2316 12.4534 1.0387 
2.2316 12.4534 0.388698 
2.2316 12.4534 0.138698 
2.2316 12.4534 0.688698 
2.2316 12.4534 1.05474 
2.2316 12.4534 1.30474 
2.23064 12.49 0.988698 
